# .PCD v0.7 - Point Cloud Data file format
VERSION 0.7
FIELDS x y z rgb
SIZE 4 4 4 4
TYPE F F F U
COUNT 1 1 1 1
WIDTH 1143
HEIGHT 1
VIEWPOINT 0 0 0 1 0 0 0
POINTS 1143
DATA ascii
2.9433911 -0.17416854 1.2831459 4291611837
3.0327897 -0.17834368 1.2813897 4292072391
2.8247461 -0.1122985 1.2886527 4291742654
2.8768115 -0.11635561 1.2783359 4292006857
2.9213541 -0.12145424 1.2795109 4291742912
2.9539447 -0.11687008 1.2990413 4291677887
3.0182259 -0.12977706 1.2756872 4292138185
2.8811276 -0.063402124 1.2836854 4292072138
2.9282894 -0.075094506 1.2695663 4292006597
2.830699 -0.031713087 1.2708182 4291809217
2.8752496 -0.016822109 1.2782935 4292072390
2.9374542 -0.00400801 1.2631844 4292467924
2.9556019 -0.024592265 1.254468 4292006594
2.8400917 0.021647569 1.2957203 4292137153
2.8789196 0.026086852 1.2749113 4292335310
2.9311221 0.0036268458 1.2591956 4291875010
2.8360896 0.068960845 1.2739873 4292071105
2.8581781 0.082867883 1.2713176 4292203724
2.903414 0.066847488 1.2704018 4292401096
2.846658 0.1159751 1.2854882 4292005312
2.8708239 0.12854937 1.281136 4292006085
2.9070458 0.107811 1.2826604 4292335562
2.8835223 0.17469947 1.2753059 4292071880
2.9033747 0.1639571 1.2763731 4292795859
2.8830783 0.22943501 1.2704133 4292400845
2.9069018 0.2134411 1.2828877 4290755242
2.8439248 0.28746775 1.2968554 4292465612
2.880336 0.28566784 1.2719127 4292400845
2.9111822 0.25172386 1.2753849 4292598735
2.8228259 0.33295459 1.2755936 4292465611
2.8871064 0.33118188 1.2684572 4292466383
2.9433358 0.31294876 1.2851727 4292466638
2.794769 0.36991677 1.2983509 4292596940
2.8428988 0.39018118 1.2936137 4292334797
2.8663502 0.38342896 1.2698305 4293059036
2.9103076 0.37310752 1.2742151 4292401103
2.7876849 0.41714507 1.2997463 4292728267
2.8221259 0.42136425 1.2735175 4292860884
2.8731701 0.42499986 1.2702237 4292729812
2.9004552 0.44588161 1.2672349 4293190109
2.7617588 0.46585959 1.2754482 4292596938
2.832165 0.47354823 1.2732143 4292597968
2.8726678 0.46409854 1.2654425 4292861652
2.9255705 0.47480947 1.2758183 4292664278
2.7859864 0.52565312 1.2618334 4292860886
2.814347 0.54810512 1.2707703 4292400333
2.8773775 0.52571005 1.2740382 4293058778
2.9231927 0.5341711 1.2737173 4292598484
2.7846925 0.56778073 1.2735342 4293058265
2.8140535 0.58537966 1.2711781 4292663505
2.8819327 0.57540154 1.2705226 4292861656
2.9044135 0.5724774 1.266696 4292466384
2.7986908 0.62816852 1.2613142 4292399818
2.8195865 0.62740368 1.2817534 4292860884
2.8885975 0.63061702 1.2762169 4292663760
2.6977282 0.6816687 1.2980084 4292661960
2.7121284 0.67958885 1.2727753 4292465351
2.7790992 0.68799901 1.264307 4292399559
2.8147635 0.67231083 1.2701986 4292531916
2.8724053 0.67214227 1.2778777 4292729552
2.7332356 0.7195285 1.2667713 4292596937
2.7807472 0.7343604 1.2782809 4292465096
2.8362257 0.73421371 1.2740588 4292531918
2.87817 0.72014016 1.2762624 4292860626
2.779007 0.78662896 1.2740246 4292464838
2.8113129 0.77846122 1.2688462 4292399560
2.8527021 0.77353221 1.2896968 4292926672
2.9053574 0.78616643 1.2754905 4293123797
2.7155266 0.83170438 1.271859 4293057486
2.7852607 0.82822198 1.2805706 4292596937
2.8232348 0.83050269 1.269281 4292794574
2.8736937 0.81964397 1.2779839 4293189848
2.7201371 0.8640089 1.2692955 4292991693
2.7880492 0.88009298 1.2756246 4292596939
2.8181095 0.87953025 1.2629074 4292531399
2.8817434 0.86680114 1.2605025 4292795599
2.7192385 0.91907716 1.2862794 4292793801
2.7816749 0.93149495 1.2740598 4292728267
2.8325021 0.91545045 1.266831 4292729290
2.7391286 0.97801268 1.2874697 4292728009
2.7891097 0.98379195 1.2808011 4292332995
2.8235185 0.97247785 1.2758681 4292728523
2.7494133 1.0208802 1.2962272 4292399049
2.7888548 1.0306106 1.2825477 4292727754
2.8218968 1.0187565 1.2733878 4292399301
2.7955284 1.0811871 1.2768464 4292793548
2.8223381 1.0701271 1.2744054 4292465092
2.7836223 1.1329982 1.2743284 4292135360
2.8181407 1.1077542 1.2673084 4292596937
2.7712595 1.1765209 1.2804631 4291477430
2.7209792 1.2396003 1.2729626 4292134596
2.7739346 1.229564 1.2727019 4292333256
2.7207837 1.280452 1.278749 4292134853
2.7810838 1.2786937 1.267845 4292399055
2.7324705 1.3258044 1.2743534 4292530124
2.7800131 1.3172839 1.2763447 4292595666
2.7303679 1.3797697 1.2806925 4292003780
2.7900779 1.3789709 1.2760704 4292397008
2.6978588 1.4317567 1.2804564 4291146930
2.72087 1.424469 1.2820985 4292004035
2.7647417 1.423432 1.2725232 4291871430
2.6696081 1.4869652 1.2821953 4283912020
2.7219813 1.4740081 1.2774973 4289635241
2.6728013 1.5302532 1.2626851 4279309326
2.7030029 1.513849 1.2718706 4281741877
2.4577279 1.5859559 1.2879808 4279374870
2.6922619 1.5823034 1.2719753 4278915080
2.7088416 1.5608797 1.2677335 4279177737
2.4753342 1.624207 1.2741444 4279111179
2.6025817 1.6411284 1.2698071 4278717186
2.6754601 1.6300855 1.2730217 4279441170
2.4504077 1.6621977 1.2687527 4279177231
2.5313776 1.6701421 1.2846273 4278980103
2.5641272 1.6640567 1.285372 4278914825
2.6099524 1.6608603 1.2750744 4278914311
2.4943116 1.7318597 1.2698038 4278586118
2.5247173 1.7308431 1.2963364 4279045129
2.4975431 1.775454 1.2566277 4278848514
2.526824 1.777142 1.2824769 4278914312
2.5256095 1.8151829 1.2699552 4278782980
2.4116952 -0.80845547 1.3364232 4291741875
2.4940004 -0.80207735 1.302618 4291545779
2.5050926 -0.8079918 1.3488693 4291611057
2.5562813 -0.80930072 1.322944 4291939770
2.6978803 -0.80087197 1.3347549 4291872963
2.7119246 -0.80611235 1.3254563 4291675314
2.7562582 -0.80606127 1.337325 4291808438
2.8405471 -0.81097138 1.3370837 4291347384
2.8684261 -0.80029267 1.3316103 4290886832
2.1579859 -0.77639902 1.3295008 4289044378
2.2331142 -0.77562904 1.3401116 4291938999
2.2867284 -0.78368986 1.3319395 4291873463
2.3705635 -0.79059041 1.3403251 4291807671
2.5659721 -0.78969419 1.3275712 4291742902
2.6161549 -0.77000076 1.3400952 4291676342
2.6720097 -0.78404576 1.3253741 4291676598
2.7190933 -0.78124499 1.3153493 4291413430
2.7760987 -0.78316283 1.3194349 4291412908
2.8209805 -0.76924419 1.3162748 4291084978
2.8756058 -0.76486748 1.340428 4291347645
2.9009309 -0.76901734 1.3491424 4290821807
2.8796239 -0.72189593 1.314459 4290822067
2.9006739 -0.70821059 1.3177466 4290493355
2.8901527 -0.67149806 1.3164562 4290755756
2.8917155 -0.62498569 1.3213919 4290098345
2.903079 -0.62182927 1.3194053 4290295727
2.8911674 -0.58207166 1.3282886 4290952878
2.9094524 -0.56682771 1.309938 4291085496
2.8958278 -0.5285821 1.3112326 4291019699
2.9260895 -0.51787418 1.3252554 4291348667
2.9512775 -0.51515794 1.3154464 4291678154
2.8758798 -0.46035993 1.3350698 4291348150
2.9340353 -0.47131935 1.3206469 4291480258
2.9739721 -0.48688489 1.325482 4291611836
3.0361519 -0.47049555 1.3127406 4291612094
2.8227246 -0.42570913 1.3283781 4291347640
2.8927991 -0.41701171 1.323052 4291282873
2.9077806 -0.42070711 1.3257675 4291611587
3.0088098 -0.43541542 1.333514 4291677886
2.758678 -0.37476254 1.30823 4291413690
2.8176033 -0.35538447 1.3147271 4291413693
2.8867478 -0.36630341 1.3104553 4291677379
2.9184146 -0.36540782 1.3346994 4291479485
2.9710927 -0.37542439 1.3252151 4291809217
2.7740643 -0.32594252 1.3173827 4291348411
2.8431265 -0.31251082 1.3119597 4291941066
2.8817527 -0.32483453 1.3272226 4291479997
2.9337921 -0.33881661 1.3420738 4291413946
2.9572561 -0.32930487 1.3220816 4291940545
2.8368888 -0.27806938 1.3307723 4291743430
2.8791049 -0.27776253 1.3225147 4291479741
2.9221072 -0.29501486 1.3226762 4291545275
2.9852748 -0.28880724 1.3083057 4291809217
2.8832464 -0.22187915 1.3235244 4291874758
2.9378567 -0.23175421 1.3357968 4291677373
2.9985018 -0.24187288 1.3145238 4292006596
2.8850517 -0.1531506 1.3138896 4292269776
2.9248815 -0.18204212 1.3333839 4291743168
2.95613 -0.15900113 1.3356192 4291743679
3.0346241 -0.18472576 1.3253243 4292072131
2.8685269 -0.11693183 1.3197734 4292072392
2.9212446 -0.12514596 1.3381232 4291809473
2.9757688 -0.13553172 1.326297 4291809217
2.8479321 -0.06338504 1.3224823 4292532690
2.8795829 -0.077410467 1.3230071 4292006085
2.9276981 -0.085728168 1.3272138 4292006597
2.881037 -0.025043361 1.3277442 4292071876
2.8262134 0.024793919 1.3329521 4292467151
2.8773751 0.028376168 1.320742 4292071619
2.8349655 0.06928429 1.3363364 4292400841
2.8730056 0.07973326 1.3188771 4292400587
2.8366048 0.11309332 1.3330442 4291939264
2.8821411 0.11980963 1.3233361 4292269001
2.8437932 0.15347044 1.3364831 4292465605
2.8839757 0.1783997 1.3245633 4292334792
2.8876565 0.22844152 1.3307952 4292006085
2.90732 0.22784004 1.325225 4292138190
2.8758824 0.27024424 1.3386842 4292400073
2.9261959 0.27004427 1.314109 4292663760
2.8207767 0.33288497 1.3234655 4292465611
2.8873773 0.32975644 1.3245428 4292729555
2.9172885 0.31600526 1.3212323 4292795346
2.7668922 0.3882933 1.3350539 4292728010
2.8109837 0.36891624 1.3267362 4292597198
2.8735218 0.37346539 1.3253379 4292664017
2.9109406 0.36155909 1.3276613 4292597967
2.7677884 0.42590424 1.3479376 4292794061
2.8457108 0.41548067 1.3392761 4293189592
2.8768682 0.41947562 1.3217909 4292795090
2.912859 0.42455825 1.3211112 4292400846
2.7883632 0.4699325 1.3203015 4292662730
2.8432794 0.45740685 1.3282633 4292926931
2.8925989 0.47628838 1.3205117 4292334795
2.922122 0.49417484 1.3224269 4292861143
2.797071 0.52928334 1.3069844 4292991956
2.8434324 0.52174973 1.3040119 4292794832
2.8607781 0.52032638 1.3271616 4292795090
2.9533296 0.5250715 1.3328428 4292532176
2.8133342 0.57934088 1.322681 4292860112
2.8722448 0.55338258 1.3271712 4292992467
2.9763627 0.57368416 1.3285354 4292466639
2.6908572 0.62872571 1.3432466 4292531146
2.7225313 0.64621913 1.3108407 4292662219
2.796694 0.63898313 1.3377836 4293057749
2.8258522 0.62094676 1.3220626 4292728783
2.877378 0.61611366 1.3283577 4292663762
2.9003034 0.60984933 1.338172 4292531663
2.9666886 0.61346447 1.33936 4292400590
2.6828408 0.66740096 1.3246183 4292728009
2.7884579 0.67486596 1.3401518 4292860112
2.8178544 0.67933625 1.3265932 4292531660
2.871136 0.66464317 1.3181351 4292861140
2.6912444 0.70132333 1.3429791 4292858823
2.7343149 0.72543967 1.3165569 4292661961
2.782444 0.71645677 1.3274181 4292662733
2.8226109 0.72567374 1.3152084 4292926417
2.8946164 0.74259788 1.3210557 4293255126
2.7894359 0.76620018 1.3258727 4292662731
2.8172421 0.77819192 1.3182523 4293123025
2.8938329 0.78217125 1.3088735 4293254870
2.7823033 0.83287001 1.3197019 4292794058
2.8150604 0.82512355 1.3318158 4292991953
2.7444098 0.8832829 1.3438963 4293254351
2.7807264 0.88217115 1.3306589 4292530887
2.8212717 0.88734323 1.3251846 4292793805
2.7407303 0.92960358 1.3282194 4292662474
2.7760115 0.93176287 1.3299038 4292925645
2.8180676 0.92966062 1.3148451 4292464840
2.735039 0.98004258 1.323404 4292794058
2.7707598 0.98186302 1.3255596 4293254356
2.7401955 1.0306847 1.3229135 4292464068
2.7844286 1.0306509 1.3272877 4292859595
2.8165245 1.0408872 1.3030554 4293189076
2.7819984 1.0727947 1.3280605 4292595911
2.8212705 1.0950713 1.3072085 4293189071
2.7835307 1.1252782 1.3221196 4292398275
2.7355175 1.1824564 1.3275131 4291673785
2.7610481 1.1737859 1.3279368 4291477686
2.7359574 1.221944 1.3317078 4292135363
2.7661893 1.2277845 1.3148346 4292333769
2.7383564 1.2736796 1.3290229 4292267460
2.7751989 1.2729499 1.3244997 4292135365
2.8221488 1.2914928 1.3250277 4292597191
2.7343287 1.3299972 1.3459539 4292135360
2.7737055 1.3200409 1.3203124 4292201414
2.8135152 1.3332467 1.3313125 4291937474
2.7248619 1.3706018 1.3262556 4292267461
2.7808301 1.3749663 1.3408978 4291806142
2.8332593 1.3763349 1.323601 4292200394
2.6657572 1.4151452 1.3268557 4291741123
2.7071731 1.4214431 1.3287325 4291806656
2.7687311 1.4205346 1.3199279 4291674045
2.6855021 1.4705604 1.3258169 4288779926
2.7301176 1.46834 1.3167872 4290292908
2.6727369 1.5184113 1.3226876 4280689444
2.7215803 1.5191084 1.3156812 4284503899
2.4800384 1.5807202 1.3009951 4278981381
2.5187569 1.5877266 1.3241441 4278586371
2.558481 1.5946482 1.3478857 4278914823
2.6495233 1.5711411 1.3492919 4278783752
2.6730959 1.5726681 1.3161381 4278849293
2.7192776 1.5729539 1.3048266 4279375372
2.5698667 1.621357 1.3324084 4279045894
2.6750958 1.6230773 1.3312192 4282466371
2.620698 1.661184 1.3222022 4279309069
2.6559596 1.6528244 1.3352457 4279243018
2.4770916 1.7168634 1.3040251 4278848776
2.5397666 1.7196053 1.3395045 4279243273
2.5409298 1.7756057 1.3151687 4278914310
2.5405869 1.8198812 1.304987 4279110924
2.5600681 1.8228552 1.3378975 4278979850
2.4715877 -0.81324363 1.3592284 4292005048
2.5200033 -0.81508547 1.3976648 4291676337
2.5904555 -0.82158566 1.3821652 4291676596
2.6201386 -0.82899338 1.3983608 4292005047
2.7482152 -0.8037436 1.3573512 4291609521
2.7661622 -0.80628318 1.37554 4291281837
2.880892 -0.8048839 1.3639089 4291083696
2.2396069 -0.77898979 1.3743663 4291807161
2.3355973 -0.78257418 1.389788 4291873204
2.3713634 -0.78790021 1.3791206 4291807668
2.6472712 -0.75022846 1.370474 4291347635
2.6831613 -0.79441845 1.3793893 4291413419
2.7173479 -0.77361602 1.3679174 4291347380
2.7879553 -0.79026538 1.3801872 4291215788
2.8389056 -0.79059964 1.3705611 4291413944
2.8849869 -0.76966661 1.3641633 4291216310
2.9078319 -0.77191228 1.3788418 4290756017
2.8789644 -0.72172898 1.3730254 4290953657
2.9054081 -0.72062576 1.36595 4290690224
2.8915627 -0.67172885 1.3733747 4290689712
2.9044635 -0.67053443 1.3634648 4290624172
2.8901644 -0.62890124 1.3627112 4290295465
2.9063175 -0.61950195 1.3670871 4290427299
2.8807018 -0.56627697 1.3632435 4291216054
2.9060352 -0.56809062 1.3648217 4291151030
2.8949711 -0.54185265 1.365142 4291545786
2.9083607 -0.51945907 1.3687035 4291414203
2.9514802 -0.53141934 1.3981398 4291150774
2.8991737 -0.48550266 1.3623531 4291808960
2.918421 -0.47730607 1.3669113 4291414204
2.8455317 -0.41484907 1.3795266 4291545014
2.9200041 -0.43087801 1.3779366 4291677376
2.9845455 -0.43307731 1.3548208 4291677887
2.8232298 -0.37831712 1.3809834 4291610808
2.8983994 -0.37893707 1.3794005 4291676347
2.9169455 -0.37607935 1.3744172 4291677377
2.9680634 -0.39174247 1.3635573 4291809217
2.8685393 -0.32539797 1.3832835 4291808705
2.925364 -0.32545114 1.3850923 4291611323
2.8479466 -0.26857644 1.3635552 4292203724
2.8690577 -0.27009898 1.3756433 4291480252
2.9182801 -0.27454421 1.3794271 4291742908
2.9500809 -0.28749481 1.3561469 4291875009
2.848165 -0.21381694 1.3742418 4292335311
2.8813703 -0.23293947 1.3749127 4291611068
2.927969 -0.22542152 1.3781663 4291875008
2.8302422 -0.17366928 1.387113 4292005827
2.8774149 -0.17422342 1.3609318 4292137674
2.9211421 -0.17329021 1.3761612 4291809216
2.8056366 -0.12916298 1.3834654 4291939519
2.8709412 -0.11851199 1.3743331 4291940546
2.9497743 -0.1464694 1.3729787 4292138182
2.8354802 -0.067777753 1.3804945 4292203464
2.8688135 -0.066400886 1.3772955 4291874497
2.9713151 -0.068240516 1.3836045 4292335561
2.83834 -0.021728914 1.364749 4292532690
2.8779197 -0.015133627 1.3744714 4292006083
2.9108565 -0.041906416 1.3710711 4292203203
2.8234861 0.023977378 1.362209 4292598995
2.8837032 0.035695922 1.3768531 4292006081
2.9068274 0.0080489544 1.3820087 4292071104
2.8405702 0.070493035 1.3787235 4292598222
2.8834524 0.083990477 1.3786273 4292006081
2.8415241 0.1112613 1.3879102 4291873982
2.8615322 0.12404633 1.366592 4292466122
2.8468919 0.16481185 1.390403 4292530886
2.8802757 0.17467897 1.365344 4292268741
2.8742056 0.22583085 1.3751228 4292005570
2.9193914 0.23423366 1.3702064 4292992984
2.8340118 0.27316791 1.3874269 4292465609
2.875514 0.27655256 1.3769463 4292531916
2.9097037 0.27794045 1.3623282 4292992726
2.8308384 0.31725544 1.3761947 4292662987
2.8703825 0.32515091 1.3731592 4292795345
2.9060111 0.30069461 1.3561738 4292796112
2.7872365 0.36127821 1.362613 4292662732
2.8224308 0.36330831 1.374024 4293189847
2.8577182 0.38771492 1.3595194 4292926420
2.7893653 0.40971926 1.3846388 4292859595
2.8361514 0.42055336 1.3781189 4293321177
2.8753457 0.40756345 1.3695936 4292532174
2.905545 0.43297619 1.3729088 4292531405
2.7897501 0.48497853 1.3742166 4293255128
2.821768 0.46478847 1.3810887 4293189075
2.8653188 0.48876315 1.3571222 4293387229
2.9147151 0.4775385 1.3667641 4292531918
2.7998791 0.53537226 1.3785771 4293780956
2.8339074 0.52201045 1.3622611 4292925903
2.8782997 0.5310514 1.3766828 4292992212
2.9094 0.52298862 1.3981097 4292465870
2.8384769 0.57991165 1.3750898 4292925902
2.8675191 0.58083242 1.3870525 4292860624
2.9293563 0.56012857 1.3664293 4292531918
3.0100825 0.58000648 1.3742661 4292400592
2.7352226 0.61654764 1.3670347 4292859341
2.7866549 0.63179713 1.3692219 4292990924
2.8188565 0.6143918 1.3988966 4292596681
2.8627253 0.62786478 1.3737358 4292926162
2.7925189 0.65433437 1.3767273 4292728779
2.8446639 0.66542125 1.3910342 4292992465
2.8776622 0.67340851 1.3740494 4292530890
2.9089293 0.69369143 1.3662614 4293386716
2.7184513 0.73413306 1.3573037 4292858823
2.8089316 0.71419197 1.3745475 4293057231
2.8990338 0.73049408 1.3621496 4293321176
2.780174 0.7718088 1.364895 4292793290
2.8251731 0.770702 1.3759716 4293057489
2.7770085 0.8180626 1.3643067 4292662728
2.8302326 0.82505137 1.3782955 4293122768
2.7830372 0.87063664 1.3663048 4293056975
2.8272364 0.88556534 1.3679441 4292859598
2.8500576 0.860322 1.395079 4293254351
2.7939453 0.92578971 1.384914 4292990924
2.8219569 0.94041324 1.3629174 4292530376
2.8552287 0.93020761 1.36166 4292530121
2.7362864 0.99509716 1.3651294 4292726470
2.7872429 0.97195345 1.3848828 4292990668
2.8060274 0.99212474 1.37464 4293188558
2.7210398 1.0246514 1.3567883 4292792263
2.7605891 1.030205 1.3568554 4293056976
2.8339522 1.0320807 1.3885044 4293188556
2.7282538 1.0517713 1.3604662 4292725956
2.7798493 1.0728484 1.3658047 4292858825
2.8286576 1.074066 1.3862375 4293188555
2.7747865 1.1301882 1.3668997 4292069054
2.8163249 1.1129764 1.3805273 4293780697
2.7336581 1.1723396 1.3850132 4291411127
2.7817464 1.1737314 1.3834989 4291741115
2.7431607 1.2178713 1.3818904 4291674810
2.7653985 1.2345662 1.3701233 4292794065
2.739404 1.2741209 1.3749585 4290358441
2.7576718 1.2867173 1.3650928 4292728527
2.7404404 1.3241308 1.3812622 4290490537
2.7526078 1.3427464 1.3666459 4292662736
2.8107307 1.3229358 1.3710858 4291806142
2.7295094 1.375224 1.3774637 4291148980
2.8280239 1.3687479 1.3811841 4291806141
2.6687424 1.4292608 1.3591368 4291543744
2.7142773 1.4203308 1.3873603 4291937985
2.7938709 1.4380392 1.3550398 4291411127
2.6778748 1.4735212 1.3796732 4287727752
2.7293015 1.4694955 1.3843049 4291147444
2.7706385 1.4655126 1.352851 4291279546
2.6488419 1.5315043 1.3672036 4279309582
2.6551669 1.5104467 1.3936567 4282532415
2.7496405 1.5223348 1.3772533 4288317582
2.6478553 1.5741024 1.3996248 4282862656
2.6694381 1.5793394 1.3767115 4279243530
2.6045043 1.6055043 1.3637151 4279505436
2.6733456 1.6224388 1.3855014 4284374109
2.5597172 1.6727374 1.3729622 4279177738
2.6145515 1.6604627 1.3964304 4279374860
2.6521547 1.65426 1.3511847 4279176975
2.5500948 1.7220898 1.3895974 4279242502
2.5495358 1.7784388 1.3539116 4279045898
2.5542359 1.7641304 1.3920765 4279111434
2.5662694 1.8165125 1.374854 4279374354
2.5863807 1.8640108 1.3706656 4278848525
2.4617007 -0.80083942 1.4175419 4291610545
2.6597548 -0.82668054 1.4482789 4291545006
2.2553167 -0.79401803 1.405494 4291937971
2.3357713 -0.76305443 1.4365344 4291939254
2.3637059 -0.77563655 1.4342586 4291741618
2.4350698 -0.78674293 1.4295156 4291741876
2.4984839 -0.79508734 1.4011648 4291939256
2.6374993 -0.79599661 1.403124 4291807924
2.6619859 -0.76945281 1.4211252 4291479221
2.7293496 -0.75385112 1.413264 4291019436
2.7747393 -0.77275658 1.4004455 4291084980
2.8281345 -0.77218997 1.4158021 4291150258
2.8870451 -0.77043742 1.4183649 4291150770
2.9157043 -0.77734345 1.4196955 4291084207
2.704035 -0.73619199 1.414575 4291281845
2.8335686 -0.73195159 1.4277077 4290888116
2.8891699 -0.73415095 1.4491291 4290953647
2.9094045 -0.72394848 1.4171891 4290689962
2.8450117 -0.67022669 1.4317706 4290952630
2.8757062 -0.6764524 1.420272 4291083951
2.908093 -0.68272918 1.4090796 4290492581
2.8141263 -0.63048112 1.4173508 4290097062
2.8771315 -0.62748188 1.4086666 4290426795
2.9159145 -0.6241442 1.4181643 4290558885
2.7999761 -0.58654523 1.4095014 4290688682
2.837132 -0.57275617 1.4092412 4290886827
2.8844426 -0.57982969 1.4206069 4291479482
2.915226 -0.56227797 1.4178705 4291085492
2.8824069 -0.54153913 1.4219722 4291347893
2.9105635 -0.51699322 1.4226599 4291611328
2.9174554 -0.47743845 1.4204479 4291677375
2.8386557 -0.41523802 1.4158405 4291544760
2.8836145 -0.43503538 1.4337462 4291808704
2.9313858 -0.41915807 1.4300079 4291874757
2.8414555 -0.37242645 1.4337624 4291808705
2.8548932 -0.36420307 1.4168602 4292072139
2.9204473 -0.37580717 1.4222807 4291874757
2.8447776 -0.31314594 1.4190984 4292137934
2.8779409 -0.32512644 1.4258953 4291743164
2.9202473 -0.32230496 1.4337677 4291545786
2.8438497 -0.27577433 1.4010817 4292203726
2.8671465 -0.26807141 1.4268819 4291940543
2.9035211 -0.27641177 1.4221845 4291676601
2.84653 -0.21383405 1.4047158 4292400589
2.8839231 -0.23276734 1.4209077 4291874496
2.9144571 -0.21322635 1.4177563 4291677632
2.8360596 -0.17455649 1.4199467 4292136901
2.8598719 -0.17253368 1.431928 4292006596
2.9179635 -0.18831572 1.4121237 4291875009
2.7999773 -0.11217582 1.4308947 4292598482
2.8271437 -0.13361387 1.4332751 4292269258
2.9299068 -0.13913102 1.4107581 4292138437
2.9890695 -0.10033166 1.4075836 4292335560
2.8233809 -0.076469086 1.4326284 4292268999
2.8784652 -0.070803359 1.4277953 4292466898
2.9036222 -0.085137464 1.4296985 4292335304
2.9628794 -0.068866536 1.4114019 4292335559
2.8230455 -0.019877283 1.4288645 4292598226
2.8827248 -0.038045261 1.4253124 4292269253
2.7859638 0.047891457 1.4176292 4292466636
2.8226576 0.022298319 1.4277658 4292729297
2.8784611 0.0241923 1.4283352 4292137411
2.9142385 0.027759405 1.4126506 4292071361
2.8337748 0.067732126 1.4155663 4292400072
2.8303435 0.10888585 1.421185 4292136381
2.8593903 0.12137974 1.4102987 4292663762
2.8318033 0.16179556 1.4216194 4292531139
2.8782208 0.17124628 1.4162457 4291413177
2.828263 0.2146277 1.4063684 4290555552
2.8742523 0.2282449 1.407856 4292465862
2.9085648 0.22892869 1.4307945 4292729293
2.8291535 0.26269591 1.4300216 4292794315
2.8729439 0.27200621 1.4150406 4292663755
2.9125721 0.28548229 1.4202921 4293255898
2.8355732 0.32949758 1.4244485 4293386454
2.8647525 0.32379904 1.4179982 4292992209
2.9075742 0.31089672 1.444504 4292597961
2.8241649 0.3717716 1.4238052 4292926414
2.842876 0.42027903 1.4292455 4293386967
2.8705928 0.42990234 1.4321371 4292663499
2.9310327 0.44449222 1.4264681 4292663244
2.8155077 0.47539908 1.4230171 4293518556
2.8821394 0.46952578 1.4350691 4293057746
2.9291143 0.47987437 1.4032733 4292597197
2.8257408 0.52842611 1.4133859 4293057233
2.8895657 0.50979525 1.4425081 4293386453
2.9137046 0.52021343 1.4376383 4292663245
2.8320043 0.57056868 1.4174855 4293188562
2.8932848 0.56631392 1.4331373 4292860368
2.7038407 0.62748504 1.4374056 4293517523
2.7618737 0.62832367 1.4386965 4293386199
2.8689826 0.62009263 1.4222578 4292926160
2.7197254 0.665057 1.4267075 4293385683
2.7735367 0.67522275 1.4155297 4293320402
2.8391862 0.68017489 1.4359307 4292991953
2.8844385 0.66827244 1.4250318 4293386712
2.9007006 0.66605157 1.4049942 4292728520
2.7442801 0.71007603 1.4301031 4293385937
2.7977703 0.7256189 1.4281656 4293320405
2.8283436 0.71991271 1.4135667 4293188817
2.8792477 0.73503888 1.412262 4293386457
2.8228438 0.76242602 1.42608 4293254355
2.8556991 0.77323353 1.436752 4293254611
2.7605052 0.82996774 1.4392796 4293320657
2.837378 0.82828462 1.4262514 4293451990
2.8575816 0.81002706 1.4475555 4292728520
2.7209563 0.86412799 1.4382294 4293386450
2.7765291 0.86646956 1.4281082 4293583321
2.8352878 0.87686729 1.427605 4292925388
2.723882 0.91835457 1.4373507 4293188558
2.7677658 0.92635286 1.4235491 4293254097
2.8210196 0.91831607 1.4109124 4292924616
2.7354784 0.97172773 1.431507 4292728010
2.7667427 0.96746916 1.4273587 4293385684
2.8047545 0.96204656 1.4035438 4293320144
2.7323763 1.0198677 1.4499919 4292858568
2.7783175 1.0160296 1.4238513 4293122511
2.8365929 1.0179511 1.4197513 4293254349
2.7882073 1.0678707 1.4314002 4293253841
2.8259747 1.070497 1.4169918 4292991179
2.7475402 1.1192406 1.4495335 4292069054
2.7647312 1.1341633 1.4147495 4292990670
2.8108628 1.1139293 1.422937 4292727753
2.7473128 1.168213 1.449138 4291609526
2.7628613 1.1779908 1.4302292 4291938237
2.7427173 1.221053 1.4240396 4290819247
2.7500105 1.2385504 1.4486982 4287266943
2.7455993 1.2803673 1.4282345 4287267453
2.7529135 1.2787228 1.4020377 4289109403
2.7421811 1.3304584 1.4284866 4289766814
2.6813266 1.3954184 1.433382 4291938241
2.7353864 1.3775989 1.4267927 4291872191
2.6767905 1.4206765 1.4303277 4292200644
2.7290611 1.4269909 1.4256816 4292332745
2.6732454 1.4729654 1.4193016 4291411130
2.7081122 1.4799919 1.4262797 4291214010
2.6466751 1.5229738 1.4498746 4279966489
2.6597011 1.5222861 1.4052247 4279375388
2.7380362 1.5015259 1.4242115 4290489516
2.6675537 1.5777769 1.4118158 4279179537
2.7901745 1.5577917 1.438334 4287725954
2.6621144 1.625774 1.4193339 4286807170
2.6010637 1.6776754 1.4442356 4279769622
2.5712044 1.7103355 1.427982 4279309325
2.5726888 1.7639662 1.4290947 4279308552
2.5775819 1.8331853 1.4321698 4279896848
2.5785322 1.8602895 1.419294 4279176971
2.6359706 -0.81225371 1.4778709 4291676340
2.7139177 -0.81394416 1.4927835 4291478955
2.3764312 -0.79512244 1.4825499 4291741361
2.4899013 -0.76799691 1.4908386 4291676081
2.7210667 -0.7826212 1.4640449 4291150509
2.7547894 -0.7795819 1.4855145 4291347887
2.8826182 -0.75827676 1.454788 4290821293
2.8196299 -0.73887807 1.475314 4291150512
2.8747756 -0.71365196 1.4740144 4290690216
2.9119027 -0.73685682 1.4565039 4290689965
2.8951404 -0.67899764 1.453301 4290821545
2.8821363 -0.62862408 1.4534822 4290558382
2.9031625 -0.62449527 1.4581759 4290558886
2.9106708 -0.56353688 1.4650466 4291282875
2.8969898 -0.53315926 1.4623402 4291480248
2.9449706 -0.51892269 1.476454 4291874250
2.8875878 -0.45002559 1.4554291 4291545014
2.9138944 -0.47853455 1.4679087 4291676862
2.8800159 -0.44330105 1.4666311 4292071888
2.9249141 -0.40830356 1.4742193 4291611322
2.9150515 -0.38130963 1.4643121 4291743165
2.8486803 -0.31369203 1.4526391 4292269259
2.8904305 -0.33538115 1.4636588 4291743165
2.8934155 -0.27038896 1.4608675 4292006083
2.9216044 -0.29520085 1.4635062 4291611067
2.8971226 -0.23473679 1.4617773 4292203458
2.9304128 -0.23396119 1.4778341 4292269517
2.8371542 -0.15813994 1.4979794 4292006335
2.8840556 -0.18048546 1.4773605 4292203719
2.9097691 -0.19407541 1.4784433 4292269513
2.7999802 -0.13110749 1.4836198 4292401093
2.8077497 -0.10143933 1.487911 4292335046
2.8746507 -0.11686839 1.4846435 4292269253
2.8781273 -0.065950662 1.4874245 4292269253
2.8854649 -0.029463559 1.4647789 4292072130
2.8332138 0.049179807 1.4719535 4292597961
2.8709478 0.005299734 1.4758265 4292532169
2.8325295 0.07657966 1.4639177 4292795087
2.8917503 0.091786876 1.4740026 4292137923
2.8484635 0.12502739 1.4552413 4292531660
2.8687792 0.13068016 1.4713917 4292729291
2.8406296 0.18706295 1.4753449 4292398527
2.8615541 0.15833579 1.4760808 4292794826
2.8441763 0.22860536 1.4621887 4292991953
2.8605158 0.2160231 1.4636526 4292662471
2.9158607 0.24646264 1.4599111 4293320407
2.8290298 0.26506385 1.4751691 4292925899
2.8596401 0.29066974 1.4531238 4292926413
2.9311638 0.27202424 1.4631209 4292992466
2.9515805 0.28806373 1.4667842 4292466634
2.8319385 0.31945771 1.4711221 4293189329
2.8630211 0.33038804 1.4710006 4293584090
2.9069335 0.32369006 1.4834458 4293715163
2.8250082 0.37491775 1.4715059 4292991949
2.8431969 0.40988228 1.4794387 4293386451
2.8751566 0.43578076 1.4688531 4293715163
2.849103 0.45268863 1.4727852 4292925900
2.8695517 0.47963819 1.4730349 4293321173
2.845185 0.53269887 1.4802488 4293584348
2.8733375 0.52021402 1.4738947 4292991952
2.7096481 0.57864046 1.4762672 4293451476
2.7927768 0.57702696 1.4841383 4293583316
2.8499928 0.5854128 1.4722093 4293715165
2.8708997 0.57500261 1.4778277 4292860623
2.6974006 0.62537384 1.4627147 4293451476
2.7250934 0.60384154 1.4774326 4293517522
2.8339429 0.62617755 1.4749269 4293057486
2.8679173 0.62187612 1.4822488 4293649369
2.7105825 0.67130846 1.4700952 4293517269
2.7779896 0.66927767 1.4834585 4292925644
2.8471079 0.69792801 1.4709878 4292729036
2.8939424 0.67563903 1.4685206 4293649372
2.7287934 0.72622186 1.463187 4292860106
2.7596021 0.70776415 1.4719062 4293123022
2.8912785 0.72763944 1.4622415 4293649116
2.730262 0.76907039 1.4728792 4292991437
2.7769055 0.75454426 1.4829521 4293122766
2.8129623 0.78821862 1.4661956 4293320659
2.8681772 0.77255601 1.4728796 4293320403
2.7423754 0.81533194 1.4713966 4293254098
2.7936771 0.82072669 1.467452 4293386197
2.8495762 0.83844149 1.4678397 4293780697
2.8683882 0.81906193 1.4788527 4293517782
2.7758543 0.85323912 1.4975138 4292925132
2.8188801 0.87430149 1.4836923 4292925387
2.7469661 0.92299193 1.4908832 4293385168
2.7852466 0.900087 1.493165 4292925131
2.7435489 0.9725104 1.4971466 4292924875
2.7640758 0.97465909 1.4713875 4293517005
2.7824726 1.0247846 1.4604058 4293779933
2.8120391 1.0219141 1.4970456 4293582801
2.7427437 1.0743822 1.4553394 4290818218
2.7921515 1.0804899 1.4680847 4293648344
2.8071041 1.0787607 1.465022 4293320144
2.7265544 1.1277293 1.4865649 4292989644
2.7684965 1.1410174 1.4653499 4293384911
2.8015697 1.1198874 1.4772266 4293583825
2.7378864 1.1709352 1.4724268 4292134078
2.7527747 1.1558001 1.495682 4292727491
2.7479658 1.2205062 1.4773247 4291806393
2.7434862 1.2730814 1.4547977 4287727487
2.7577062 1.272384 1.4844365 4290227870
2.7483003 1.3246729 1.4571676 4291016626
2.7548084 1.3201523 1.4920607 4292726726
2.743221 1.3690177 1.4704369 4292398789
2.6761255 1.4272863 1.4773285 4292398021
2.7221394 1.4064388 1.4911134 4292398277
2.6631722 1.473179 1.4913455 4292134846
2.7058177 1.4803792 1.4593925 4291345081
2.6658409 1.5158401 1.4930977 4290161060
2.7361414 1.5221303 1.4892337 4291081910
2.7712405 1.5444442 1.4819388 4290226603
2.6496437 1.5609968 1.456355 4279967764
2.7892573 1.5563409 1.4648039 4288844950
2.6655109 1.6114634 1.4934115 4288779151
2.64554 1.6599588 1.4755702 4284767320
2.5964518 1.7407799 1.4693768 4278915336
2.621619 1.7180032 1.4833797 4279637265
2.5921414 1.7642756 1.4670807 4279440143
2.5960023 1.8068763 1.4558285 4281211165
2.59729 1.8606751 1.4704729 4279635223
2.6357555 -0.82602948 1.5342283 4291544497
2.7273073 -0.82047188 1.544306 4291478702
2.5948451 -0.79668468 1.5113896 4291807157
2.7795818 -0.77652478 1.5193576 4290887593
2.8623328 -0.71374893 1.5292664 4290492582
2.8707974 -0.68899852 1.5078896 4290492835
2.8807611 -0.63232183 1.5079248 4290558374
2.8901768 -0.57001382 1.5130132 4291348149
2.9032054 -0.52070713 1.5197339 4291677112
2.9604089 -0.52339911 1.5083479 4291875013
2.8765411 -0.47246909 1.536351 4291808698
2.9136226 -0.4763504 1.5250771 4291611319
2.9783201 -0.49194378 1.5276415 4291874750
2.8691726 -0.42579719 1.5324949 4291808699
2.939218 -0.43270242 1.5231361 4291808700
2.8666983 -0.39255273 1.517311 4292006334
2.9268289 -0.38441244 1.5170302 4291743678
2.922581 -0.33062646 1.5304568 4291874750
2.9086025 -0.27700096 1.5226198 4291874493
2.9503968 -0.26176146 1.51463 4292203726
2.8402178 -0.21805955 1.5295389 4291874493
2.8814182 -0.23974764 1.522882 4292137666
2.9609807 -0.22377279 1.5222229 4292335309
2.817239 -0.17681344 1.5151134 4292137666
2.8908703 -0.16343537 1.5004689 4292335044
2.828146 -0.12430369 1.5256385 4292006079
2.8197923 -0.075876668 1.5309305 4292268995
2.8502645 -0.071729682 1.5105796 4292663497
2.8169453 -0.016694082 1.5254984 4292202945
2.8767192 -0.025734175 1.5169632 4292597703
2.9155035 -0.025337817 1.5116553 4292269251
2.8646252 0.016451729 1.5141684 4292334530
2.9224849 0.029492458 1.5026956 4292072129
2.8229103 0.065927543 1.5217363 4292203203
2.8572798 0.064359732 1.5303884 4292597960
2.848676 0.13121282 1.5253162 4292597189
2.8458712 0.15426517 1.524848 4293320141
2.858454 0.19944128 1.5373454 4291938483
2.8457992 0.21444255 1.5251962 4293254345
2.8635044 0.24247716 1.5398793 4292729036
2.8444042 0.25716162 1.5197177 4292991948
2.9181504 0.285824 1.5016429 4293452506
2.8330059 0.33127972 1.5168848 4292991949
2.8509901 0.30011192 1.533567 4293320656
2.8490107 0.38715208 1.5370893 4293254354
2.8427315 0.4092707 1.5095351 4293518289
2.8710017 0.41776103 1.5238237 4293714906
2.8476207 0.45033085 1.5155091 4292860364
2.8623064 0.45250732 1.5303434 4293386705
2.9071157 0.46777913 1.5146072 4293715420
2.7782958 0.54381299 1.5207094 4293386454
2.8144171 0.52215332 1.5402203 4293517781
2.8632655 0.52594745 1.5243102 4292926415
2.7329412 0.56234181 1.5106648 4293517267
2.8399 0.55803412 1.5089467 4293386453
2.8509371 0.58767211 1.5309842 4292860623
2.7405145 0.60991114 1.539362 4292991436
2.8078299 0.61681384 1.5213645 4292860364
2.7264807 0.66326696 1.5230774 4293057229
2.7850502 0.6500293 1.5226004 4292728781
2.8884027 0.68698192 1.5112236 4293518554
2.6962533 0.72033167 1.5445333 4293122765
2.7126579 0.7432462 1.5358334 4293188304
2.7609105 0.71083617 1.5247247 4293254095
2.9044015 0.73146254 1.5091227 4293715417
2.7461007 0.76735139 1.5412734 4293056718
2.786448 0.76929331 1.5313792 4293583057
2.8837631 0.77780956 1.5116634 4293715163
2.773454 0.80286115 1.5428426 4293122510
2.8097696 0.83035606 1.5245471 4293583056
2.7472894 0.88123912 1.5495278 4293582803
2.7796798 0.88221216 1.5134684 4293319888
2.8004792 0.87121177 1.5197711 4293517519
2.7199275 0.91433418 1.5343473 4293648851
2.78161 0.92246628 1.539439 4293779923
2.7357974 0.96076 1.5453182 4293254096
2.7787673 0.9698593 1.5282836 4293582800
2.7372892 1.0241319 1.5023351 4292859083
2.7512536 1.0118887 1.5420792 4292924620
2.8186038 1.0240215 1.5304407 4293582799
2.7381175 1.0694385 1.5272914 4290884785
2.8265867 1.071347 1.5200319 4293451470
2.7373576 1.1152618 1.5230629 4293122250
2.7893865 1.1092018 1.5249735 4293452761
2.821523 1.113503 1.5026217 4293912797
2.7333364 1.1638167 1.5227866 4292266689
2.7220013 1.2141128 1.5272802 4292793035
2.5324252 1.2700118 1.5471346 4293319119
2.739397 1.2634815 1.5217627 4292398530
2.7790627 1.2965448 1.5401014 4293582801
2.5472195 1.3064656 1.5404156 4293187534
2.7046711 1.3062232 1.5373455 4293056974
2.7573116 1.3217579 1.5289335 4292727240
2.5847075 1.3602425 1.5428065 4293121998
2.6390855 1.363203 1.547157 4293056206
2.7328255 1.3725386 1.5293732 4292793801
2.7597349 1.3675232 1.5214995 4292135109
2.6463575 1.4128906 1.5329609 4292924877
2.6931093 1.4023058 1.531317 4292859340
2.7556319 1.4240834 1.5276234 4292134850
2.6700869 1.4767132 1.5375254 4293055434
2.7297499 1.4633453 1.5125275 4291936961
2.6833479 1.5257409 1.5453503 4293581778
2.7352421 1.5207069 1.5151975 4291541948
2.6771612 1.5635008 1.5279075 4287990915
2.6586335 1.7155765 1.5461948 4288911503
2.6375034 1.7690417 1.5203319 4286544748
2.6233082 1.8127965 1.5032735 4284893773
2.6353979 1.8616605 1.5334718 4282989116
2.6356103 1.9157032 1.5199716 4279638037
2.6726048 -0.83958548 1.5995131 4291544496
2.7281141 -0.81407368 1.5739882 4291478960
2.7979622 -0.8090691 1.5699234 4291149993
2.6716907 -0.78992534 1.5705669 4291544497
2.8327818 -0.77221394 1.5686345 4291018926
2.855581 -0.73208761 1.5584203 4290755498
2.8671527 -0.68591404 1.5622211 4290689959
2.8755977 -0.6289829 1.5719827 4290755493
2.8896587 -0.57189316 1.564382 4291348147
2.8977025 -0.52348417 1.5782764 4291545783
2.8781493 -0.48407722 1.5626799 4291742905
2.8414996 -0.41205215 1.5765221 4291808439
2.8785627 -0.44114628 1.5697942 4292071871
2.8357017 -0.3574827 1.5777678 4291873979
2.8786206 -0.38177502 1.5608854 4291874491
2.9487493 -0.37423158 1.559 4291676859
2.8643222 -0.32091627 1.5718952 4292005565
2.9107985 -0.32674402 1.569032 4291742650
2.8843665 -0.27149636 1.5844171 4291874493
2.8418515 -0.20695621 1.5900929 4292006334
2.8592563 -0.24510422 1.5653507 4292071873
2.8320982 -0.19344299 1.5610693 4292335044
2.8130617 -0.14780101 1.5619435 4292203459
2.8419626 -0.088003941 1.5670806 4292531909
2.7677722 -0.029792638 1.5859704 4292663750
2.8362343 -0.033169907 1.5844926 4292597959
2.8340931 0.031930465 1.5934997 4292531911
2.8533943 0.0030961863 1.5585479 4292598214
2.8376687 0.079697803 1.5606816 4292531910
2.8404379 0.10788065 1.5673221 4291742391
2.8416891 0.1530792 1.5682601 4293123532
2.8758349 0.18546554 1.5766311 4290493355
2.8378999 0.21252142 1.5816622 4293254607
2.868196 0.23370756 1.586717 4292794314
2.8206649 0.26389974 1.5757995 4293123020
2.8598282 0.26880863 1.5670948 4292860106
2.8309836 0.32230195 1.5813049 4293189070
2.7430775 0.38402665 1.5849261 4293122765
2.8354521 0.37129188 1.5719604 4292991436
2.8598893 0.38048413 1.5728652 4293189071
2.7180068 0.41853309 1.5835593 4293188557
2.808048 0.42425385 1.5943258 4293122765
2.8631287 0.42889231 1.579474 4293254609
2.7654617 0.48187882 1.5971478 4293319885
2.8609848 0.48520148 1.5724748 4293385936
2.7468655 0.51763266 1.585746 4293188558
2.8316782 0.52916801 1.5913161 4293254607
2.8691251 0.53062415 1.5802376 4293057228
2.7484088 0.56237257 1.576926 4293057228
2.7887912 0.56934297 1.5675931 4292991692
2.8114643 0.56502706 1.5838867 4293517779
2.8580053 0.57443494 1.5639806 4292991693
2.7692375 0.60787642 1.5866075 4293385681
2.6993515 0.68694377 1.5557823 4293122511
2.7355194 0.67400199 1.5887716 4293385936
2.7657084 0.66345066 1.5661697 4293517779
2.694499 0.70737308 1.576407 4293714389
2.7252882 0.7178939 1.5817735 4293385428
2.7683547 0.70023936 1.5751837 4293517522
2.6926284 0.75838786 1.5851119 4293780181
2.7091911 0.76756191 1.5669003 4293517268
2.763696 0.75703949 1.5580852 4293649108
2.6785486 0.82136285 1.5866506 4293187791
2.7188294 0.8117817 1.5775448 4293451474
2.7838936 0.81239915 1.5731173 4293320144
2.8324254 0.82229507 1.5668544 4293583316
2.6779935 0.86922312 1.5892086 4293187790
2.7202656 0.86094016 1.5771238 4293451473
2.7960243 0.8519156 1.5660502 4293319888
2.8209863 0.87881374 1.5811937 4293056972
2.8542786 0.85892534 1.5790843 4293517267
2.7112329 0.91068476 1.5656052 4293451474
2.7854352 0.90987307 1.5696683 4292925387
2.8148642 0.90491444 1.557645 4293649107
2.7206049 0.95954335 1.5898371 4293319633
2.7353728 1.00923 1.5940104 4293055949
2.765837 1.0121355 1.5801843 4293582546
2.8041015 1.0180042 1.5523454 4293582803
2.7350044 1.0729603 1.5822541 4293056716
2.7673414 1.0679948 1.5617542 4293649625
2.8088372 1.0636123 1.5552034 4293582802
2.7215984 1.1166021 1.5701246 4293450447
2.6823292 1.1737144 1.5903734 4292793289
2.7211802 1.1679581 1.5590657 4292398276
2.6680462 1.222515 1.5774508 4293188047
2.7213726 1.2165105 1.5779693 4292858830
2.531327 1.2518216 1.5642954 4293384402
2.5976145 1.2732673 1.5707095 4293319120
2.6781807 1.2721455 1.5724846 4293122511
2.7310841 1.2750601 1.5549355 4292463816
2.683629 1.3180928 1.5728997 4292925901
2.7367811 1.3260295 1.5799935 4292266696
2.7631226 1.3168597 1.5598061 4292332745
2.5730023 1.353318 1.5767103 4293187533
2.7341163 1.3652433 1.577996 4292201415
2.7732415 1.3777426 1.5651209 4292201158
2.6351066 1.4150019 1.5869313 4293253070
2.7532499 1.4171309 1.570977 4292135110
2.68467 1.4707906 1.5884225 4293121229
2.7525697 1.4639909 1.5751202 4292134597
2.6954136 1.5185491 1.5949352 4293120715
2.7633657 1.5271666 1.5813917 4292002752
2.6822119 1.5705919 1.5826911 4292659908
2.6770005 1.6109867 1.5774715 4291344306
2.669219 1.6679469 1.5520617 4289897115
2.6784337 1.7009499 1.5998942 4292726725
2.664608 1.7647641 1.5733012 4290358693
2.6523831 1.8197669 1.5570166 4288449930
2.6332412 1.8597224 1.5737667 4292265408
2.6548476 1.9162533 1.5728478 4285622887
2.6710227 1.9556646 1.568505 4279044101
2.7738554 -0.80539477 1.6008251 4291084202
2.6744688 -0.7917394 1.6157082 4291544497
2.7664578 -0.78205585 1.6213437 4291084460
2.8133864 -0.77634454 1.6235957 4291084203
2.8479252 -0.74429095 1.6128769 4291018414
2.8603318 -0.71897238 1.6201383 4290689188
2.84919 -0.69858623 1.6138256 4290952362
2.8610761 -0.673204 1.6201668 4290098335
2.8577852 -0.63290173 1.6184378 4290689702
2.8482153 -0.59191966 1.6445373 4291347634
2.8827331 -0.56869531 1.6198975 4291479220
2.8859086 -0.52435571 1.6178241 4291677111
2.880414 -0.48100802 1.6129091 4291874233
2.6710994 -0.43234926 1.6439458 4292267967
2.8485048 -0.4304122 1.6258893 4291742904
2.8616776 -0.44046378 1.6298847 4292202687
2.8327532 -0.37669897 1.6162208 4291743162
2.8591611 -0.38886559 1.6159151 4292268479
2.8625627 -0.32176065 1.6243968 4292137151
2.6946812 -0.27640507 1.6299962 4292465351
2.7337193 -0.2788685 1.6241268 4292531396
2.800338 -0.2986508 1.6483818 4292334274
2.8816245 -0.28131217 1.6262214 4292071359
2.6929042 -0.23312299 1.6290973 4292465864
2.7379003 -0.23530711 1.6267961 4292465861
2.8692226 -0.23621161 1.6354804 4292203202
2.8375785 -0.17966923 1.6246533 4292071872
2.8591411 -0.19564992 1.622035 4292531909
2.7933593 -0.10870747 1.6345153 4292202944
2.8409827 -0.13066463 1.6163473 4292268994
2.7798867 -0.05693287 1.6281428 4292268480
2.824101 -0.078197569 1.6107793 4292400324
2.8553808 -0.088780828 1.6051159 4292597702
2.7660589 -0.021058148 1.6303862 4292531654
2.8129871 -0.0066916645 1.6011209 4292334274
2.79001 0.023888256 1.6227009 4292597188
2.8024344 0.029864881 1.6211202 4292729290
2.8256254 0.073753804 1.6175442 4292399812
2.8523932 0.062374204 1.6195023 4292729544
2.8455791 0.12255079 1.6099936 4291742396
2.8381739 0.17874902 1.6230059 4292201917
2.867806 0.18318962 1.6017437 4290164394
2.8194678 0.22790289 1.6168871 4293188556
2.7988708 0.29875246 1.6045141 4293122508
2.8027873 0.26754466 1.6074582 4293582800
2.7901828 0.33788422 1.6133337 4292925900
2.8314013 0.31571585 1.6240588 4293648592
2.7703218 0.37462556 1.6152782 4293188811
2.8538001 0.36413002 1.6218486 4293452239
2.755513 0.4103705 1.6483104 4293451212
2.8709733 0.40188754 1.6369165 4293583571
2.7337899 0.45093575 1.6251664 4293254093
2.8353653 0.47753924 1.6097178 4293123020
2.8675177 0.46781692 1.6146517 4293386193
2.7382183 0.50116849 1.608633 4293254094
2.7552185 0.54473674 1.6183727 4293122765
2.836796 0.5106166 1.6281035 4293845717
2.7185268 0.58516753 1.6478752 4293845716
2.7839589 0.57537645 1.6390874 4293385935
2.8279729 0.56819046 1.6233414 4293583057
2.7300034 0.60731101 1.6354542 4293780437
2.7643781 0.62626737 1.6057711 4293451216
2.7273521 0.67352843 1.624472 4293845716
2.7787552 0.6709798 1.6355669 4293385424
2.700557 0.70868617 1.6087253 4293845715
2.7507749 0.70102084 1.6138248 4293122511
2.6811693 0.77900219 1.6246629 4293319374
2.7029393 0.77031583 1.6271324 4293583059
2.7613075 0.75510526 1.6473153 4293385167
2.6798966 0.81560814 1.636775 4293385167
2.7251081 0.81521177 1.638297 4293780437
2.6354976 0.88531816 1.6208472 4293122000
2.6704459 0.85772115 1.6345992 4293253586
2.7150395 0.85447526 1.6324098 4293780434
2.6281207 0.90679413 1.6158164 4293450195
2.6798055 0.91417539 1.600374 4293187536
2.7234933 0.90952653 1.6328566 4293845716
2.6855791 0.95469719 1.6382129 4293384143
2.7613733 0.97111166 1.6459467 4293779925
2.7264454 1.0224086 1.6358731 4293252814
2.767693 1.0217595 1.6303155 4293648850
2.7299955 1.0752759 1.6391212 4293253585
2.7287269 1.1167136 1.6241186 4293187277
2.7243006 1.1620486 1.6249418 4292266689
2.6817353 1.2005974 1.6471049 4293319377
2.7469242 1.2190479 1.6323493 4292529608
2.6685889 1.2679567 1.6487511 4293450960
2.7462149 1.2643372 1.6223409 4292464072
2.7356963 1.3122072 1.6108294 4292398022
2.7184904 1.36281 1.621814 4292398022
2.6921651 1.4432871 1.6088274 4292134853
2.7160456 1.415823 1.6106732 4292266182
2.7008061 1.521237 1.6409438 4293055693
2.7019792 1.5636195 1.6418233 4293187022
2.6855838 1.6368177 1.6038593 4292923851
2.7031522 1.606002 1.6427027 4292858315
2.6863608 1.6648722 1.6044415 4292924616
2.7047162 1.6625119 1.6438755 4292858058
2.70628 1.719022 1.6450481 4291738807
2.6987488 1.7693397 1.6407011 4291409584
2.6547022 1.8127893 1.6031282 4291936699
2.6330392 1.8770801 1.6199245 4291608509
2.6579313 1.8500605 1.6443722 4292594886
2.6339555 1.9003125 1.6020876 4292199873
2.7254324 -0.81448108 1.6901066 4291346859
2.7591302 -0.81547201 1.6767135 4291412909
2.7845173 -0.78793484 1.6970887 4291084203
2.8080008 -0.76182401 1.6659304 4291018668
2.8379526 -0.72292894 1.6716999 4290952361
2.8305025 -0.69587702 1.6644295 4290491555
2.859515 -0.67567438 1.6652315 4290032543
2.8324132 -0.63499075 1.650546 4290886570
2.8537011 -0.62431771 1.6713769 4291018920
2.850862 -0.56851161 1.6741312 4291413427
2.8757467 -0.53801465 1.6593878 4291807929
2.7015052 -0.48000428 1.6624631 4292267967
2.7671182 -0.48946184 1.6728964 4292267965
2.8430471 -0.48527077 1.688103 4292202173
2.8795788 -0.48387137 1.6660727 4291873979
2.7451324 -0.44191021 1.6598068 4292268221
2.8439405 -0.42118162 1.678492 4292136637
2.8602719 -0.41730776 1.6679292 4292005308
2.7295911 -0.39657569 1.6800435 4292267965
2.835001 -0.35822967 1.6771543 4292005564
2.8533516 -0.37487546 1.6885724 4291808440
2.7493932 -0.31005403 1.683095 4292136890
2.7735696 -0.32623494 1.6731312 4292005819
2.8458958 -0.33881748 1.671535 4292136894
2.8860347 -0.33148113 1.6772773 4291939770
2.7403111 -0.28077802 1.6745844 4292268223
2.7612424 -0.266554 1.6607745 4292071611
2.8417687 -0.264909 1.6702244 4292071355
2.8774981 -0.28600633 1.6717334 4292005563
2.7013662 -0.23428737 1.6632954 4292466117
2.7752705 -0.2111114 1.6831726 4292202430
2.8605952 -0.21703333 1.6810145 4292071103
2.7025614 -0.19111384 1.6641911 4292531396
2.764359 -0.16519548 1.676455 4292400066
2.8317401 -0.17060411 1.6544024 4292399812
2.8508444 -0.16831976 1.6845937 4292202946
2.7566617 -0.13491884 1.6976644 4292663497
2.8092072 -0.13697433 1.6794275 4292334530
2.7656267 -0.081949197 1.6770977 4292268224
2.8227391 -0.090313114 1.6777632 4292794311
2.8263419 -0.022855071 1.6801926 4292860103
2.7936187 0.044491138 1.6765546 4292399811
2.8155107 0.077422298 1.6548154 4292662981
2.8311367 0.11472228 1.6637197 4291149486
2.8452723 0.15133579 1.6769171 4293320141
2.8194537 0.21764174 1.6716387 4293056969
2.7999403 0.29610372 1.6627357 4293122763
2.8432066 0.25670302 1.6609598 4293517007
2.8051147 0.34750545 1.6604424 4293188557
2.8623779 0.3042956 1.6723491 4293648594
2.8027351 0.37815526 1.6777465 4293254093
2.9028978 0.37064916 1.6962632 4293714385
2.7881734 0.44221655 1.6964419 4293320142
2.8902237 0.41444454 1.6890818 4293845716
2.7651567 0.49254975 1.6531494 4293254349
2.8730509 0.45696634 1.6792735 4293845715
2.7944162 0.5393362 1.6705062 4293254352
2.8607681 0.51492602 1.6723859 4293649107
2.7271628 0.57238269 1.6821681 4293649109
2.7566493 0.56532073 1.6708245 4293845716
2.8254595 0.57616442 1.6777585 4293386194
2.7289848 0.6304158 1.6688883 4293780436
2.7980268 0.64205849 1.6902301 4293254094
2.8301549 0.63036478 1.6625729 4293122765
2.7522535 0.66513073 1.6832557 4293779923
2.8234015 0.681692 1.6721241 4293057230
2.7018666 0.73398459 1.6654491 4293319120
2.7659802 0.72833329 1.6742845 4293648595
2.736295 0.76139921 1.6593193 4293977556
2.7229981 0.82099569 1.6732435 4293911508
2.707408 0.87951076 1.6711688 4293911765
2.7343533 0.93187404 1.6733472 4293911507
2.7078788 0.99675709 1.6561599 4293384143
2.7777302 0.9766013 1.699939 4293845717
2.7892427 1.0105878 1.662654 4293845716
2.7220378 1.0767273 1.6770594 4293384653
2.7539842 1.0679601 1.6858239 4293911772
2.7179089 1.1141847 1.667455 4293449676
2.716805 1.1595924 1.6665003 4292792262
2.6808786 1.2463478 1.6562271 4293385167
2.7326779 1.2105343 1.6640661 4292595403
2.7443891 1.2533976 1.6708261 4292529607
2.7526305 1.2951343 1.6618633 4292529610
2.7621446 1.3240461 1.6877316 4292529610
2.7430382 1.3673596 1.6637871 4292463816
2.6732368 1.4359047 1.6522363 4293122000
2.6963916 1.4768405 1.6523768 4293121743
2.7060227 1.5100497 1.6726718 4293121746
2.7071986 1.5525271 1.6735531 4292990157
2.7087657 1.6091636 1.6747284 4292989903
2.7103338 1.6658003 1.6759038 4292924367
2.7115095 1.7082779 1.6767852 4292858319
2.7288475 1.7615796 1.6876442 4292923851
2.6780164 1.8235095 1.6566223 4292726469
2.7208204 1.811854 1.6828966 4292660678
2.7760594 -0.78443301 1.7365777 4291215018
2.8217726 -0.76674187 1.7123531 4291018412
2.8145175 -0.73919785 1.7157509 4290952104
2.8589325 -0.72526938 1.7268503 4290754980
2.8347378 -0.69822323 1.7282431 4290557602
2.8545725 -0.67741662 1.7082467 4290097567
